# .PCD v0.7 - Point Cloud Data file format
VERSION 0.7
FIELDS x y z intensity distance sid
SIZE 4 4 4 4 4 4
TYPE F F F F F F
COUNT 1 1 1 1 1 1
WIDTH 803
HEIGHT 1
VIEWPOINT 0 0 0 1 0 0 0
POINTS 803
DATA ascii
-0.82876998 -0.14698 -1.3003 6 1.377 29
0.49381 -0.12117 -1.291 34 1.2970001 621
0.50084996 -0.116825 -1.3002 20 1.308 622
-0.75632 -0.067867003 -1.3103 6 1.3430001 56
0.45102999 -0.063942 -1.3105 8 1.2920001 601
-0.87936997 -0.032451998 -1.3147 26 1.41 13
-0.17110819 -0.033612002 -1.3130274 11.090909 1.1737273 313.81818
0.44839001 -0.059567999 -1.2998 6 1.281 602
-0.16472086 -0.024831738 -1.2986652 12.608696 1.1588262 316.52173
0.45552999 -0.0204155 -1.3004 3 1.2835 605
0.52449 -0.029436 -1.2961 6 1.311 633
0.54458666 0.019998332 -1.3042668 10 1.3276666 639
0.54468501 0.039086498 -1.2944 11 1.3195 641
-0.89576 0.072678 -1.3153 0 1.421 8
-0.81449997 0.14050999 -1.3193001 0 1.385 38
-0.79545999 0.14964999 -1.3051 2 1.364 42
-0.75903249 0.175295 -1.2979 7 1.3422501 54.5
-0.73701888 0.17787556 -1.2918167 13.888889 1.3265555 61.555557
-0.70531356 0.17827706 -1.2921352 14.470589 1.3118824 73.764709
-0.67652315 0.17886561 -1.292925 13.875 1.2995625 85.1875
-0.6485163 0.17787056 -1.2920579 12 1.2864211 96.157898
-0.61552751 0.17845151 -1.29266 15.1 1.2732501 109.7
-0.58554608 0.17822 -1.2918934 16.266666 1.2606 122
-0.55486792 0.17828749 -1.2925168 17.666666 1.2496248 135.08333
-0.52445501 0.17794655 -1.2931883 18.538462 1.2393848 148.26923
-0.49580038 0.17764312 -1.2925034 18.965517 1.2291034 160.68965
-0.46696636 0.17824954 -1.2924044 19.818182 1.2200454 173.5
-0.43445933 0.17783137 -1.2928276 21.172413 1.2109309 188.20689
-0.40530828 0.17816262 -1.2933217 21.73913 1.203652 201.60869
-0.37505263 0.17777628 -1.2921408 23.407408 1.195074 215.48148
-0.34503654 0.17793155 -1.2923306 24.692308 1.1886537 229.57692
-0.31523117 0.17791334 -1.2930393 26.363636 1.1834849 243.75757
-0.28306699 0.17774606 -1.293615 27.515152 1.178515 259.18182
-0.25388852 0.17779151 -1.2936515 27.272728 1.1743031 273.24243
-0.22650968 0.17783158 -1.2938437 28.125 1.1711562 286.53125
-0.19389644 0.17715378 -1.2931266 26.977777 1.1672 302.39999
-0.16529298 0.17743295 -1.2945116 28.454546 1.166568 316.45456
-0.13688575 0.17752102 -1.2944378 28.4 1.1651999 330.39999
-0.10338712 0.17754574 -1.2941225 28.85 1.1642249 346.875
-0.075401798 0.17753342 -1.2949998 27.318182 1.1652727 360.63635
-0.043995317 0.17727269 -1.2940248 30.636364 1.1652726 376.09091
-0.015624685 0.17756526 -1.2947738 30.238094 1.1676905 389.9762
0.015935773 0.1773019 -1.2945704 28.765957 1.1700851 405.40427
0.044914916 0.17756569 -1.2959182 26.818182 1.1745909 419.40909
0.075108312 0.17686471 -1.2942548 29.854546 1.1768909 434.1091
0.10501532 0.17759401 -1.2958933 27.955555 1.1833333 448.3111
0.13542978 0.1772642 -1.2955166 27.791666 1.1884999 462.79166
0.16575141 0.17724063 -1.2952878 28.12245 1.1945715 477.08163
0.19516748 0.17700656 -1.2949579 27.423077 1.2010385 490.80768
0.22529997 0.17700841 -1.295148 27.48 1.2089002 504.64001
0.25444385 0.17709269 -1.295398 28.346153 1.21725 517.8269
0.28468978 0.17698979 -1.2954856 28.285715 1.226388 531.34692
0.31431738 0.17691661 -1.2955509 28.679245 1.2359811 544.39624
0.3447147 0.17719327 -1.2967612 25.591837 1.247592 557.36737
0.37491798 0.17703085 -1.2959 23.6 1.2577798 570.38
0.40437835 0.17679919 -1.2950959 24.081633 1.2683671 582.85712
0.43484059 0.17657982 -1.2959797 16.68 1.28148 595.21997
-0.75386113 0.18778555 -1.3125777 5.1111112 1.3538889 59.777779
-0.73455131 0.18644525 -1.3063147 14.606742 1.3390335 65.685394
-0.70549828 0.18681696 -1.3070147 14.6 1.3261108 76.877777
-0.67479134 0.18666436 -1.3069803 15.1875 1.3122499 88.78125
-0.64506596 0.18688807 -1.307675 15.306123 1.3000921 100.68367
-0.61473203 0.18709072 -1.3077387 17.08 1.2876801 112.94
-0.58537978 0.18682496 -1.3072917 18.055046 1.2757248 124.92661
-0.55474287 0.18676949 -1.3071374 19.030304 1.2641615 137.72728
-0.52532476 0.18690871 -1.3082291 19.383177 1.2548414 150.4299
-0.49477312 0.18684459 -1.307492 20.053097 1.2440439 163.53983
-0.46500084 0.18644623 -1.3073363 21.151516 1.2346464 176.60606
-0.43467882 0.18646838 -1.3073819 21.09091 1.2260002 190.13637
-0.40407488 0.18631029 -1.3072523 22.349514 1.2177768 203.96117
-0.37474006 0.18658076 -1.3080406 23.531532 1.2115141 217.48648
-0.3450208 0.18628404 -1.3075567 24.307692 1.2045285 231.19231
-0.31511715 0.18653359 -1.3084676 25.777779 1.1996577 245.25926
-0.28460941 0.1863011 -1.3081906 26.747663 1.1941867 259.62616
-0.25483876 0.1864748 -1.308622 28.109091 1.1903183 273.81818
-0.22530416 0.18614319 -1.3086351 28.718447 1.1867286 287.95145
-0.19556533 0.18607686 -1.3094736 28.755102 1.1847042 302.29593
-0.16489448 0.18574838 -1.3091378 28.75 1.1821672 317.09375
-0.13502869 0.1857651 -1.3085458 28.195652 1.1802392 331.55435
-0.10525875 0.18613577 -1.3093199 28.076923 1.1804808 346.00961
-0.074773088 0.18575597 -1.3091257 26.574469 1.1804149 360.8085
-0.045029022 0.18609956 -1.3094479 28.979591 1.1817143 375.22449
-0.014674821 0.18598427 -1.3093879 28.700001 1.1833605 389.91
0.014866795 0.18589242 -1.3094401 27.741936 1.1858172 404.15054
0.044168133 0.18601593 -1.3100883 22.978724 1.1895955 418.17023
0.074928179 0.18609248 -1.3101817 28.183674 1.1937448 432.82654
0.10483637 0.18598184 -1.3097634 26.086021 1.1979895 447.01074
0.13505441 0.18597862 -1.3097008 26.042105 1.2033889 461.20001
0.16471237 0.18608423 -1.3098938 25.304348 1.2096527 474.96738
0.19462571 0.18605056 -1.3103824 26.417582 1.2169451 488.67032
0.22478347 0.18590991 -1.3102173 26.229885 1.2243448 502.39081
0.25533569 0.1861288 -1.3109877 29.730337 1.233483 515.98877
0.28470948 0.18580513 -1.3107705 28.414635 1.2419516 529.01221
0.31541166 0.1859584 -1.3103459 26.795181 1.2513494 542.4458
0.34518528 0.18592085 -1.3109938 26.275 1.2620749 555.11249
0.37473062 0.18557921 -1.3099105 24.026667 1.2716801 567.76001
0.4046925 0.18554315 -1.3099058 22.559999 1.283093 580.18665
0.43437973 0.18584986 -1.3103046 18.202898 1.2953769 592.20288
-0.1890347 0.29147995 -1.3144931 37.28125 1.207891 306.32031
-0.16561027 0.29032773 -1.3146485 38.32143 1.2062546 317.41071
-0.14190046 0.29158494 -1.3156056 53.35593 1.2063222 328.68643
-0.19082576 0.316257 -1.3032835 34.739925 1.2027506 305.28204
-0.16492207 0.31597382 -1.3017305 35.276138 1.1994474 317.55496
-0.13903318 0.31576526 -1.3051662 46.959461 1.2015376 329.96622
-0.19401322 0.33900231 -1.2942967 30.905027 1.1998495 303.64804
-0.16433129 0.33608741 -1.2930605 38.876545 1.1958835 317.74075
-0.13751674 0.3397328 -1.2942485 45.420559 1.1967483 330.61215
-0.20643391 0.37510839 -1.3123492 12.980392 1.2277256 298.88235
-0.1284966 0.372958 -1.3044457 12.621622 1.2150539 335.16217
-0.99238253 -0.63207877 -1.2783499 12.5 1.565375 1.125
-0.97509819 -0.6355055 -1.2710983 13.344828 1.5514743 5.3189654
-0.9408648 -0.63613862 -1.2700011 10.530612 1.5317761 15.72449
-0.91540492 -0.63555074 -1.2700549 10 1.5177252 23.706423
-0.88702303 -0.63646901 -1.2688265 12.147368 1.5020318 32.684212
-0.85505503 -0.63604671 -1.2706504 12.273381 1.4866976 43.453236
-0.82870734 -0.63538074 -1.2694399 13.066667 1.4722667 52
-0.80092567 -0.63171858 -1.2784092 13.395349 1.4642326 62.674419
-0.7611174 -0.6334393 -1.2763135 12.9 1.4445249 76.3125
-0.73472655 -0.63681763 -1.2719233 13.430303 1.4304304 85.254547
-0.70505595 -0.63656491 -1.2726213 13.425287 1.4179196 96.08046
-0.67522478 -0.63676894 -1.272629 14.145454 1.4054663 107.08485
-0.64510244 -0.63665879 -1.271933 14.574586 1.3927302 118.26519
-0.61525965 -0.63715672 -1.2711037 15.413612 1.3807799 129.56544
-0.58564013 -0.63691187 -1.2723439 14.978948 1.3708737 141.2
-0.55507064 -0.6373567 -1.2723031 15.866029 1.3604307 153.25359
-0.52489954 -0.63660765 -1.2733999 16.197044 1.3511823 165.39409
-0.49483523 -0.63730776 -1.2720333 15.812808 1.3410939 177.4532
-0.46450558 -0.6374107 -1.2728827 15.598173 1.3331867 190.00456
-0.4347297 -0.63737494 -1.2734396 15.780952 1.3257529 202.43333
-0.40495262 -0.63787925 -1.2736789 16.02564 1.3189148 214.99146
-0.37502864 -0.63778865 -1.2740113 16.191305 1.3125005 227.72174
-0.34512094 -0.63816071 -1.2737511 16.887932 1.3064311 240.53448
-0.31493956 -0.63802373 -1.2748288 16.358334 1.3019214 253.64999
-0.28473806 -0.63840294 -1.274987 17.907173 1.2975193 266.827
-0.25514209 -0.63868904 -1.2745454 17.536585 1.2933042 279.78455
-0.22487667 -0.63896537 -1.2739822 17.474577 1.2895727 293.11017
-0.19517848 -0.63908118 -1.2747903 18.72797 1.2877438 306.2912
-0.16527325 -0.63943684 -1.274514 18.130081 1.2857202 319.57724
-0.13515103 -0.63884974 -1.2754333 18.909836 1.2850289 333.00409
-0.10491386 -0.64011085 -1.274531 18.312727 1.2842543 346.48727
-0.074748538 -0.64011782 -1.2742983 20.496063 1.2842127 359.94489
-0.045416094 -0.64001733 -1.2748877 19.5 1.2855364 373.01587
-0.014697188 -0.64033735 -1.2750945 19.213236 1.2874669 386.66913
0.014891597 -0.64082229 -1.2749023 20.237154 1.2897398 399.78656
0.044750862 -0.64138544 -1.2742498 17.88372 1.2923447 412.98837
0.074784532 -0.64157611 -1.274619 19.382114 1.2963938 426.1626
0.10475694 -0.64223099 -1.2743196 20.038168 1.3007333 439.24808
0.13505776 -0.64188987 -1.274882 20.814816 1.3061219 452.35925
0.16458558 -0.64247847 -1.2751471 19.030535 1.3121834 465.00763
0.19513068 -0.64270943 -1.2749407 20.243137 1.318529 478.02353
0.22499622 -0.6430468 -1.2746726 20.576132 1.3253827 490.6214
0.25501883 -0.64365232 -1.2744828 19.666666 1.3330917 503.12918
0.28515056 -0.64382505 -1.2749811 19.813007 1.3418658 515.47968
0.31496495 -0.64377314 -1.2745709 19.877048 1.3502862 527.65576
0.34487128 -0.64395565 -1.2751312 19.543859 1.3602588 539.57892
0.37461141 -0.64438039 -1.2744827 19.591837 1.3698487 551.39594
0.40491477 -0.64443761 -1.2745118 20.302221 1.380618 563.19556
0.43471196 -0.64442396 -1.2748123 19.433475 1.3919696 574.58368
0.46462858 -0.64467835 -1.2749304 17.882353 1.403874 585.83258
0.49478501 -0.64476532 -1.2749002 18.445498 1.4162135 597.01422
0.52504188 -0.64493412 -1.274277 18.509615 1.428692 608.12018
0.55454886 -0.64508784 -1.27457 18.146118 1.4420819 618.61646
0.58437949 -0.64574254 -1.2740279 15.640777 1.4556359 629.12622
0.61436963 -0.64536399 -1.2746162 16.09 1.4702201 639.39001
0.64544344 -0.64584553 -1.2750947 14.945273 1.4860642 649.75623
0.67466384 -0.64587444 -1.2748289 14.731958 1.5006807 659.46393
0.70481449 -0.64664179 -1.274262 14.141304 1.5162717 669.2663
0.73429072 -0.64686942 -1.2744808 13.657754 1.532316 678.56152
0.7648887 -0.64684635 -1.2747036 13.378947 1.549284 688.03156
0.79064739 -0.64560252 -1.2768848 13.25 1.5648838 695.58929
-0.99386722 -0.62632281 -1.2866858 11.857142 1.5702857 1.7142857
-0.97505927 -0.62712544 -1.2848119 13.09804 1.5585294 7.1176472
-0.9435063 -0.62536222 -1.2823364 9.0793648 1.5384765 16.190475
-0.91148627 -0.62332058 -1.2817641 8.46875 1.5199062 25.984375
-0.88395566 -0.62525564 -1.2815945 13.75 1.5059284 34.964287
-0.85571361 -0.62786299 -1.2853702 12.297873 1.4952554 45.106384
-0.82280469 -0.62255418 -1.2800719 14.491228 1.4726839 54.736843
-0.79465437 -0.62661433 -1.2841719 12.792453 1.4638116 65.377357
-0.76727432 -0.62799031 -1.2845999 13.125 1.4518334 75.0625
-0.734308 -0.62867469 -1.2853513 13.219512 1.4377804 86.902435
-0.70394748 -0.62820113 -1.2869272 13.081081 1.4256757 98.054054
-0.67273402 -0.62829387 -1.2861924 13.948718 1.4121027 109.41026
-0.64689314 -0.62782216 -1.286756 14.48 1.4020398 119.1
-0.6150074 -0.62837523 -1.2868119 15.76 1.39012 131.24001
-0.58301908 -0.62796539 -1.2866828 14.926829 1.3782439 143.53659
-0.55479115 -0.62809563 -1.2873365 15.560976 1.3691461 154.68292
-0.5245319 -0.62859416 -1.2876 15.230769 1.3597692 166.76923
-0.49645919 -0.62867802 -1.2862846 15.435898 1.3501028 177.92308
-0.4667255 -0.62859952 -1.286765 16.799999 1.342 190.10001
-0.43667799 -0.62872255 -1.2866849 16.299999 1.334 202.5
-0.4029882 -0.62859994 -1.2876555 16.370371 1.3266296 216.66667
-0.37213954 -0.62861556 -1.2881609 16.52174 1.3203045 229.73914
-0.34456918 -0.62884003 -1.2876166 16.833334 1.3144581 241.45833
-0.3204836 -0.62875068 -1.2884928 15.428572 1.3108571 251.85715
-0.28181213 -0.62900287 -1.2867286 17.714285 1.3033571 268.5
-0.25364462 -0.62905604 -1.2877693 19.538462 1.3006154 280.84616
-0.23815167 -0.62931663 -1.2885834 18.666666 1.2996668 287.66666
-0.19781999 -0.62931401 -1.28868 19.6 1.296 305.39999
-0.17271501 -0.62924999 -1.2895 19 1.295 316.5
-0.091026999 -0.62994999 -1.2883 20.666666 1.2919999 352.66666
-0.0745055 -0.62963998 -1.2871499 20 1.291 360
-0.043787204 -0.62932998 -1.2887199 21.6 1.2931999 373.60001
-0.90843433 -0.58617717 -1.2725286 5.1428571 1.4978572 22
-0.89579499 -0.58171248 -1.275525 6 1.49175 26.25
-0.815364 -0.58580399 -1.2736399 17.6 1.4503001 53.099998
-0.79804868 -0.58403921 -1.2777586 17.379311 1.4444138 59.655174
-0.90092999 -0.56954998 -1.2673 10 1.484 22
-0.88342667 -0.55871004 -1.2754499 8.333333 1.4771667 28.333334
-0.81211996 -0.55096 -1.27135 10 1.4345 51
-0.80157924 -0.55647159 -1.2716845 17.846153 1.4314615 55.153847
-0.87690002 -0.52778172 -1.2746834 13 1.4628334 27.833334
-0.86164796 -0.51653802 -1.2745202 10 1.451 32
-0.78749001 -0.51349998 -1.26735 20 1.4065 56
-0.85094243 -0.49935752 -1.2704749 19.5 1.4367499 33.5
-0.83842999 -0.50129002 -1.2606 4 1.423 36
-0.78659338 -0.48927331 -1.2698001 26 1.4003334 55
-0.84091997 -0.47307 -1.2861 14 1.436 38
-0.83139801 -0.46696201 -1.27976 2.4000001 1.4241999 39.599998
-0.78847504 -0.4585 -1.28215 17 1.402 54.5
-0.787395 -0.43189502 -1.2733001 12.8 1.3866001 51.400002
-0.70368195 -0.42344409 -1.2882351 28.594595 1.3571353 84.486488
-0.68550313 -0.42249459 -1.2885076 30.461538 1.349077 91.384613
-0.78350496 -0.40421167 -1.2782667 10 1.3813334 52
-0.7695443 -0.39625999 -1.2703 15.714286 1.3657142 55
-0.72249001 -0.39491001 -1.2788 12 1.35 74
-0.70354939 -0.40467966 -1.2782468 29.318682 1.3434616 81.626373
-0.68257827 -0.4039025 -1.2815406 29.131147 1.3367293 90.204918
-0.78382003 -0.38373598 -1.2761199 10.8 1.3743999 50.200001
-0.75972247 -0.37105349 -1.26755 12.4 1.3522501 56.549999
-0.73397452 -0.37413815 -1.2715454 13.090909 1.344 67.090912
-0.70277756 -0.38027418 -1.2651831 28.881355 1.3255678 78.084747
-0.68031895 -0.37553394 -1.272776 19.604519 1.3207854 87.915253
-0.78345329 -0.35521331 -1.2876667 16.666666 1.377 51
-0.76003939 -0.34303069 -1.272893 16.285715 1.3502856 55.92857
-0.73991585 -0.34190461 -1.2662292 10.333333 1.3346249 62.041668
-0.67538738 -0.34517422 -1.2778659 22.979382 1.3155979 89.195877
-0.75515181 -0.31698999 -1.2737362 10.363636 1.3429091 56.545456
-0.74270505 -0.32455167 -1.264675 16.166666 1.3307501 59.75
-0.67626929 -0.32015601 -1.2700502 23.791666 1.3035207 86.166664
-0.74993998 -0.29855001 -1.266 14 1.33 56
-0.69018 -0.28814 -1.2790999 22 1.311 81
-0.68042421 -0.29254684 -1.2662317 19.894737 1.2962631 82.526314
0.41058204 -0.28207716 -1.283247 29.225351 1.2770495 584.21832
0.43083948 -0.28078255 -1.2830372 27.584 1.2847921 592.59198
-0.69805998 -0.25942999 -1.2754 2 1.306 76
0.40821797 -0.25474504 -1.2728642 26.991072 1.2616562 586.08929
0.43149105 -0.25511411 -1.2688119 31.22353 1.2676004 596.42352
-0.78164667 -0.21977668 -1.2731999 22.666666 1.3383332 42.333332
-0.77201998 -0.22724 -1.2631 20 1.326 44
-0.70146 -0.226965 -1.26825 19 1.296 72
0.40288928 -0.22584179 -1.2739836 21.5 1.2556107 584.63971
0.44215503 -0.23616251 -1.2634125 30 1.2639999 602.5
0.45344001 -0.22097999 -1.27195 25 1.2739999 606
-0.71986002 -0.19956 -1.2882 8 1.318 68
0.40328625 -0.19719221 -1.2699199 21.55814 1.247779 586.39532
0.46583 -0.19842 -1.2809 28 1.284 610
-0.81190002 -0.15343 -1.2769001 0 1.349 30
-0.73029667 -0.16529 -1.2785667 21.333334 1.3103334 61
-0.71556002 -0.17321 -1.26 34 1.288 63
0.405442 -0.17011601 -1.2675501 22.5 1.2429501 588.45001
0.47259334 -0.15859666 -1.2696834 18.333334 1.2721666 616
-0.81801999 -0.13572 -1.2798001 28 1.353 28
0.41352001 -0.1387475 -1.2691749 16 1.2442501 592.25
0.47863001 -0.13288 -1.2649 6 1.268 620
0.49290001 -0.1224 -1.2891001 10 1.295 621
-0.74063998 -0.11671 -1.2696 36 1.303 54
0.42234668 -0.106682 -1.2720333 6.6666665 1.2476667 596
0.49116999 -0.106405 -1.2773 30 1.2825 623
-0.8459 -0.075195998 -1.2799 6 1.364 17
-0.73461998 -0.071754001 -1.2855999 44 1.311 59
0.425475 -0.081354499 -1.2650499 10 1.2409999 599
0.44411999 -0.037854001 -1.2761 24 1.257 605
0.50764328 -0.052491333 -1.2782668 20.666666 1.288 630
-0.16041002 -0.01945 -1.2754 2 1.13525 318
0.45370999 -0.018890999 -1.2862999 20 1.27 607
0.51897502 -0.0092014 -1.2766 20 1.291 635
0.52272499 0.0099902498 -1.2716999 16 1.2885001 637.5
0.53034002 0.040881 -1.2686 28 1.29 641
0.56392998 0.052593 -1.2767 32 1.314 652
-0.78763998 0.14019001 -1.2792 0 1.337 39
-0.75484884 0.16512625 -1.2765125 5 1.3206249 51.25
-0.7338478 0.1680999 -1.2741225 14.485981 1.3085608 58.785046
-0.70486456 0.16780819 -1.2736751 16 1.2942848 69.892311
-0.67487812 0.16913942 -1.2759347 15.834711 1.2826202 82.223137
-0.64442766 0.16810612 -1.2742881 17.237288 1.267602 94.152542
-0.61535645 0.16834317 -1.2750332 19.181103 1.2560157 106.26772
-0.58471394 0.16830671 -1.2748203 19.338028 1.2434856 119.08451
-0.55476165 0.16737643 -1.2741548 19 1.2313286 131.76428
-0.52498078 0.16722131 -1.2740822 20.173914 1.2204785 144.73189
-0.49510697 0.16724449 -1.2742559 20.132353 1.2104924 158
-0.46467435 0.16767065 -1.2744722 21.210884 1.2010887 171.7551
-0.43476018 0.16731317 -1.2741275 22.727272 1.191895 185.3916
-0.40456921 0.16734938 -1.2742172 23.554054 1.1837772 199.41891
-0.37456658 0.16668987 -1.2736927 24.625767 1.175755 213.46626
-0.34519804 0.1672958 -1.2746345 25.454546 1.1701622 227.55194
-0.31462288 0.16688992 -1.2743766 25.808918 1.1637582 242.23567
-0.2850731 0.16674121 -1.2747428 25.628204 1.1589292 256.6218
-0.25506204 0.16701201 -1.275321 24.363636 1.1550456 271.36365
-0.22473432 0.16667798 -1.2753751 24.614458 1.1512951 286.31326
-0.19515234 0.16609904 -1.2741735 25.368422 1.1471248 300.9342
-0.16502622 0.16619238 -1.2746491 27.288591 1.1454233 315.96643
-0.13456583 0.1665577 -1.2754751 26.4 1.1448903 331.21289
-0.10565234 0.16574574 -1.2746301 23.448277 1.1433624 345.6839
-0.075037733 0.16607016 -1.2752445 21.987499 1.1441938 361.01251
-0.045300402 0.16574664 -1.2747407 27.024691 1.1446052 375.90741
-0.014879279 0.16587213 -1.2748566 27.158537 1.146518 391.09146
0.01502325 0.16588448 -1.2751883 26.103226 1.1493801 405.95483
0.045272272 0.16567948 -1.2750831 25.52795 1.1525902 420.92548
0.074901313 0.16541864 -1.2746837 23.790211 1.1561881 435.52448
0.10480017 0.16523314 -1.2742186 23.309092 1.1605338 450.15756
0.13521922 0.16521753 -1.274888 23.095541 1.1668603 464.81528
0.16516475 0.16546319 -1.2752157 23.868422 1.1735327 479.11185
0.19479744 0.16506407 -1.2739961 24.666666 1.1792843 493.27777
0.22465102 0.16480376 -1.2740142 26.068966 1.1870139 507.24829
0.25483456 0.16493469 -1.2746515 27.114094 1.1961612 521.08057
0.28494608 0.16512476 -1.2749345 26.571428 1.20565 534.71429
0.31500301 0.16445623 -1.2738559 27.608696 1.2144201 548.34058
0.34480882 0.16518919 -1.2751423 27.720589 1.2261324 561.22797
0.37507474 0.16483189 -1.274529 24.797102 1.2367536 574.42029
0.40560585 0.16484384 -1.274892 24.492308 1.2490536 587.29999
0.43517292 0.16464141 -1.2750491 16.672131 1.2613608 599.57379
0.45103499 0.155275 -1.2638 12 1.257 608.5
0.3301 0.26664999 -1.2754 0 1.237 552
-0.17315999 0.32427144 -1.2882715 21.714285 1.1888572 313.28571
-0.1889873 0.35155064 -1.2839744 44.057693 1.1927474 305.78845
-0.16503191 0.35107091 -1.2833985 46.054737 1.1904713 317.25684
-0.13986032 0.3527427 -1.285718 38.56929 1.1919544 329.40823
-0.19050674 0.36470339 -1.2768922 20.260397 1.1895818 304.93851
-0.16556682 0.36486065 -1.2777398 27.936691 1.1887553 316.95108
-0.13925779 0.36493522 -1.2796561 45.036404 1.1893743 329.65311
-0.87483001 -0.66084999 -1.2302001 12 1.476 32
-0.72261 -0.66000003 -1.2309999 12 1.402 85
-0.71745002 -0.66052753 -1.2314 12.5 1.4002501 87
-0.66908002 -0.66165495 -1.2323251 15 1.3807499 105.25
-0.64502758 -0.66090834 -1.2311083 14.5 1.3696666 114.16666
-0.58777463 -0.66182303 -1.2327769 14.461538 1.3495386 136.76923
-0.55790865 -0.66108334 -1.23208 14.266666 1.3380666 148.53334
-0.52523047 -0.66144633 -1.2314637 16.363636 1.3268183 161.72728
-0.49365196 -0.66136253 -1.2322062 15.75 1.3175626 174.8125
-0.46038699 -0.66097265 -1.2327304 16.52174 1.308174 188.73914
-0.4329572 -0.6613428 -1.231811 16.444445 1.3002222 200.27777
-0.40355673 -0.66121548 -1.2327621 16.108109 1.2937026 212.94595
-0.37550974 -0.66136295 -1.2332438 16 1.2878293 225.12195
-0.34233892 -0.66222072 -1.2332578 16 1.2814667 239.64444
-0.31380329 -0.66173351 -1.2328706 16.82353 1.2757646 252.17647
-0.28601462 -0.66220039 -1.2326956 16.26087 1.2713913 264.52173
-0.25493309 -0.66204977 -1.2324215 18.380953 1.2668333 278.40475
-0.22533086 -0.66207427 -1.2341001 18.931034 1.2649654 291.79309
-0.19419615 -0.66209877 -1.2330865 18.547945 1.2613156 305.82193
-0.16275188 -0.66280609 -1.2340595 18.753624 1.2604641 320.11594
-0.13626513 -0.66203088 -1.2339048 17.976191 1.2588695 332.14285
-0.10276803 -0.66202521 -1.2337058 19.75 1.2580836 347.38889
-0.0752033 -0.66205478 -1.2335849 19.527779 1.258167 359.94446
-0.044910267 -0.66232985 -1.2348589 18.933332 1.2603054 373.70477
-0.014738626 -0.66254568 -1.2341604 19.186047 1.2614074 387.40698
0.015629254 -0.66329926 -1.2339083 20.64151 1.2638776 401.14151
0.044354979 -0.66318655 -1.2353396 17.360655 1.267967 414.0246
0.075361893 -0.66320819 -1.2355212 19.448277 1.2719654 427.89655
0.1043295 -0.66298932 -1.2357835 21.513044 1.2763391 440.77393
0.13586548 -0.66350347 -1.2366717 19.912409 1.2827004 454.61313
0.16525084 -0.66297251 -1.2368151 20.820145 1.2882376 467.47482
0.19567524 -0.66337377 -1.2361921 21.67347 1.2944219 480.69388
0.22509508 -0.66386634 -1.2368007 20.703447 1.3021315 493.2276
0.25461045 -0.66387564 -1.237462 19.822784 1.3103166 505.6709
0.28505516 -0.66430718 -1.2366974 20.773006 1.3183619 518.47241
0.31516033 -0.66420788 -1.2372959 22.76129 1.3278515 530.84515
0.34503672 -0.66412508 -1.2371812 21.171053 1.3372958 543.0329
0.37559587 -0.66461945 -1.237754 20.323353 1.3484013 555.18561
0.404679 -0.66445357 -1.237815 21.216867 1.3588428 566.67468
0.43467084 -0.66438317 -1.2386535 19.9375 1.3708496 578.21875
0.46548301 -0.66454232 -1.2384064 18.469135 1.3829635 590.00616
0.49579161 -0.66473716 -1.237759 18.771242 1.3951311 601.45752
0.52489793 -0.66508526 -1.2381575 19.935484 1.4082065 612.09033
0.55488384 -0.66476542 -1.2383103 17.716312 1.4216877 622.93616
0.58462852 -0.66506582 -1.2383964 16.789808 1.4357644 633.44586
0.61523807 -0.66520083 -1.2386898 17.254658 1.4508259 644.02484
0.64444429 -0.66506732 -1.2395462 15.1625 1.4659809 653.83752
0.67532712 -0.66572034 -1.2387812 14.258823 1.4815295 664.21179
0.70536345 -0.66591394 -1.2394506 12.946746 1.497982 673.88165
0.73478258 -0.66544288 -1.2404405 14.562092 1.5144838 683.15033
0.76424545 -0.66565657 -1.2402071 13.916667 1.5307795 692.3869
0.7832182 -0.66369778 -1.2459564 13.652174 1.5449131 697.34784
-0.97111911 -0.6482268 -1.2472094 11.896552 1.5364481 3.2672415
-0.94207507 -0.64878511 -1.2427427 10.620689 1.5170518 11.494253
-0.91573304 -0.64882487 -1.2449954 10.246154 1.5042361 20.261538
-0.88566238 -0.6501413 -1.244046 11.603865 1.487874 29.922705
-0.85506481 -0.64902669 -1.2440215 12.730539 1.4714369 39.916168
-0.83250052 -0.64907259 -1.2423941 12.964705 1.4586942 47.22353
-0.78206241 -0.65518153 -1.2327691 12.461538 1.4289231 63.53846
-0.76854593 -0.64720547 -1.2393519 12.482759 1.4243791 68.724136
-0.73292446 -0.64678729 -1.2427049 16.24762 1.4104244 82.009521
-0.70474946 -0.65138859 -1.2449875 13.346939 1.40169 93.065308
-0.6747269 -0.65096372 -1.2450873 14.357142 1.3888294 104.20635
-0.64438474 -0.65145522 -1.2441566 14.88 1.3759437 115.596
-0.61460733 -0.65171868 -1.2442327 15.111111 1.3645428 127.09876
-0.58484018 -0.65167189 -1.2448125 15.124031 1.3539957 138.83333
-0.5552153 -0.65203279 -1.2447088 15.236948 1.343671 150.63052
-0.52535528 -0.65186858 -1.2447249 15.903346 1.3337288 162.6803
-0.49528527 -0.65214801 -1.2452681 15.526717 1.3249578 175.08015
-0.46516773 -0.65194517 -1.2453214 15.521568 1.3161728 187.5804
-0.43520451 -0.65244645 -1.2456219 16.79562 1.3085908 200.23723
-0.4054774 -0.65271401 -1.2458125 16.220472 1.3015116 212.91339
-0.37518317 -0.65278918 -1.2460359 16.015152 1.2948904 225.96213
-0.34488231 -0.65282434 -1.2462896 17.125475 1.2889585 239.14069
-0.3147504 -0.65284449 -1.2460206 17.161764 1.2832755 252.32353
-0.28501549 -0.65308559 -1.2466614 17.167286 1.2792375 265.50186
-0.25491461 -0.65345204 -1.2458456 17.338404 1.2746166 278.85172
-0.22495162 -0.65326291 -1.247331 17.96109 1.272471 292.3074
-0.1948951 -0.65362257 -1.2464565 19.219917 1.2691953 305.78009
-0.1647971 -0.65354401 -1.2479372 17.703125 1.268504 319.37891
-0.13476098 -0.65314388 -1.2481126 19.299578 1.2672158 332.94092
-0.10506096 -0.65398365 -1.2470683 18.912134 1.2661468 346.36819
-0.074834578 -0.65407699 -1.2476016 19.458715 1.2668257 360.04129
-0.045012575 -0.65368885 -1.2490102 19.105263 1.2687725 373.5
-0.014768826 -0.65460163 -1.2478381 19.782804 1.2697517 387.14932
0.014613548 -0.65456486 -1.2483257 20.651585 1.2724077 400.33936
0.045271002 -0.65462059 -1.2494407 17.206186 1.2764637 414.01031
0.074671321 -0.65446013 -1.2491888 18.773869 1.2797842 427.10553
0.10550326 -0.65527004 -1.2493505 21.116022 1.2847905 440.70166
0.1344891 -0.65522474 -1.2504965 19.345238 1.2906547 453.33929
0.16520801 -0.65509182 -1.2509583 19.126583 1.2968538 466.66455
0.19424273 -0.6553759 -1.2513644 20.267515 1.303516 479.12103
0.22448048 -0.65536052 -1.2513007 19.961538 1.3105388 492.01282
0.25494501 -0.65581483 -1.2519782 20.13986 1.3191257 504.75525
0.2852433 -0.65572274 -1.2515711 20.140844 1.3271476 517.40845
0.3144525 -0.65598512 -1.2515101 21.053434 1.3359159 529.39697
0.3441669 -0.65581793 -1.2525256 19.539568 1.3461368 541.32373
0.37514535 -0.65593952 -1.251868 21.163935 1.3561146 553.76227
0.40517297 -0.65614796 -1.252393 20.468468 1.367378 565.47748
0.43575209 -0.65590942 -1.25266 19.391304 1.3790174 577.27826
0.46558359 -0.65628493 -1.2534136 17.218182 1.3915821 588.47272
0.49453393 -0.65616512 -1.2528409 18.97436 1.4030342 599.3761
0.52359718 -0.65623599 -1.2526528 19.607143 1.4154018 610.07141
0.55508494 -0.65675259 -1.2519999 17.943926 1.4291871 621.47662
0.58513814 -0.65647817 -1.2532464 16.09091 1.4440116 631.90912
0.61483967 -0.65628654 -1.2532275 16.329897 1.4581857 642.21649
0.64482886 -0.65662271 -1.2534909 15.153846 1.4733975 652.3205
0.67374969 -0.65697896 -1.2537277 14.939759 1.4884819 661.86749
0.70422447 -0.65728772 -1.2546172 12.927536 1.5052756 671.6087
0.73412853 -0.65702325 -1.2542181 13.272727 1.521 681.24243
0.76480836 -0.65725249 -1.2556556 13.147541 1.5391312 690.5246
0.78562719 -0.65724772 -1.256228 14.08 1.55128 696.79999
-0.93728918 -0.62247765 -1.2492384 7.8461537 1.5092309 11.692307
-0.91810226 -0.61577111 -1.2477556 7.3333335 1.4951111 16.888889
-0.89094746 -0.61556751 -1.246925 9.25 1.479625 25.5
-0.86451799 -0.61851203 -1.2475799 19.200001 1.4672 34.599998
-0.81282496 -0.62026125 -1.2452875 13.25 1.43975 51.875
-0.80135411 -0.61605346 -1.242029 19.354839 1.4299031 54.903225
-0.7600562 -0.61890215 -1.2386594 19.118645 1.4084576 69.169495
-0.74169749 -0.6269086 -1.2343035 23.5 1.3996429 75.75
-0.911035 -0.59151125 -1.2410001 11 1.4772501 15.625
-0.88342088 -0.58380818 -1.2493272 12.363636 1.4658183 25.545454
-0.85969001 -0.5964725 -1.2343 21.5 1.4462501 31.75
-0.81037003 -0.58317 -1.2536 26 1.431 51
-0.79016942 -0.58452731 -1.2432232 19.200001 1.4134001 56.333332
-0.77710998 -0.57690001 -1.2304 22 1.3940001 58
-0.8815757 -0.55790716 -1.2513428 6 1.4572858 24.285715
-0.86517 -0.56064498 -1.2358999 11 1.4375 27
-0.78922498 -0.55694872 -1.243325 20.5 1.403 54.375
-0.77711141 -0.55762428 -1.2321856 18.857143 1.3884286 56.714287
-0.85986495 -0.52674329 -1.2500333 12.333333 1.4341668 28.666666
-0.83743 -0.52157998 -1.2352 4 1.409 33
-0.78716379 -0.53193152 -1.2445616 16.615385 1.3942307 53.307693
-0.77622187 -0.52881873 -1.2346188 20.25 1.3798126 55.125
-0.84266996 -0.49757999 -1.25675 15 1.421 33.5
-0.83689195 -0.49666199 -1.2425001 14.8 1.4064 32.599998
-0.78285998 -0.50356001 -1.2413 12 1.38 52
-0.77290636 -0.49138543 -1.2363909 17.636364 1.3671818 53.727272
-0.82306498 -0.47336501 -1.2444999 24 1.3935001 36
-0.78345001 -0.45096999 -1.2573 8 1.377 51
-0.77155894 -0.46363199 -1.2368373 18.685715 1.3582001 52.228573
-0.79822004 -0.44481 -1.246025 7 1.3735 43
-0.7668488 -0.43704647 -1.2416236 17.764706 1.3518823 53
-0.76061261 -0.402715 -1.2439154 16.192308 1.341154 53.442307
-0.75490117 -0.37802276 -1.2508128 12.698413 1.3376349 55.396824
-0.74779046 -0.37004429 -1.2510285 14.857142 1.3323332 57.619049
-0.70392126 -0.36551717 -1.2565743 30.030304 1.3150458 75.166664
-0.68411243 -0.3642152 -1.2569 31.379311 1.3059655 82.862068
-0.75294089 -0.35290363 -1.2508181 11.272727 1.3305454 54.636364
-0.74258965 -0.34185171 -1.2532288 16.372881 1.3249154 58.40678
-0.70354515 -0.34525207 -1.2456044 29.714285 1.3006326 72.040817
-0.68219483 -0.34387812 -1.2488285 28.644737 1.2932497 80.967102
-0.73628962 -0.31642747 -1.2472153 15.223881 1.3111042 58.194031
-0.70298404 -0.32293931 -1.2335701 29.475729 1.284961 68.640778
-0.68008548 -0.31629729 -1.2427531 24.579546 1.2807727 79.1875
-0.73767495 -0.29220253 -1.2392399 9.3000002 1.3 54.75
-0.67820281 -0.28588909 -1.2426112 23.815384 1.2734079 78.446152
-0.74724001 -0.25006002 -1.23875 19 1.2965 49
-0.69037998 -0.25161999 -1.2569 18 1.285 75
-0.67804331 -0.26205653 -1.237651 18.156862 1.2644511 76.450981
0.41069144 -0.24191284 -1.2594143 30.285715 1.2482857 590
0.42664716 -0.24205284 -1.2590714 33.714287 1.2545716 596.71429
-0.76090002 -0.23288999 -1.2474999 6 1.308 45
0.4101204 -0.22380309 -1.2517819 31.437838 1.2382106 591.79462
0.43094414 -0.22417027 -1.2514379 33.502762 1.2466357 600.57458
-0.76761001 -0.20603999 -1.2411 4 1.302 40
-0.69695336 -0.20003001 -1.2481333 28 1.2723334 68.666664
0.40738398 -0.19574057 -1.2416586 29.78166 1.2237467 593.44104
0.4316718 -0.1967928 -1.2370334 34.093021 1.2299709 604.58142
-0.78259999 -0.1575 -1.2378 20 1.301 32
-0.70596999 -0.1665 -1.2386 38 1.2640001 62
0.4032847 -0.16580622 -1.2428488 26.978724 1.2191988 592.29077
0.44749999 -0.17018832 -1.2321333 21.333334 1.2290001 613
0.4564167 -0.16955334 -1.2488333 32.666668 1.2476667 613.33331
-0.80111003 -0.12211 -1.2455 4 1.314 26
-0.71417999 -0.14503001 -1.2378 18 1.265 58
0.40358946 -0.13752829 -1.2391927 23.685715 1.2128859 593.78571
-0.72592002 -0.09721566 -1.2392666 7.3333335 1.268 52.666668
0.40620229 -0.11047807 -1.2366769 19.076923 1.2092309 595.9231
0.4780525 -0.099194244 -1.25 19.5 1.25175 623.5
-0.82862002 -0.063524 -1.2499 0 1.329 16
-0.72709 -0.081599757 -1.240575 3.5 1.2687501 52.25
0.41271666 -0.075450666 -1.2345667 8 1.2076668 599.66669
0.42346001 -0.071106002 -1.2512 22 1.227 601
0.47323 -0.089887999 -1.2343 26 1.235 625
-0.73452997 -0.059423 -1.2448 2 1.275 50
0.41986001 -0.053063001 -1.2394 8 1.214 602
0.43141001 -0.039701 -1.2544 10 1.232 604
0.48436999 -0.057350501 -1.2388501 19 1.2425001 629
-0.15922999 -0.019703001 -1.2541499 0 1.114 318
0.43226999 -0.020856 -1.2467 14 1.225 606
-0.85079002 0.00038352 -1.2512 0 1.341 8
0.51141 0.0065875002 -1.2534 28 1.267 637
0.52157998 0.032979 -1.2577 28 1.276 640
-0.82391 0.080805667 -1.2320333 2.6666667 1.3123332 13.666667
-0.75725394 0.139018 -1.23822 7.5999999 1.2864001 41.200001
-0.73355281 0.1466015 -1.2357255 12.510638 1.2729361 49.978722
-0.70424193 0.14611021 -1.2363348 13.918367 1.2590204 61.653061
-0.67528135 0.14595829 -1.2361765 14.711864 1.2451528 73.288139
-0.64440662 0.14610636 -1.2370329 16.426229 1.2319019 86.196724
-0.61384487 0.14593367 -1.2374464 16.799999 1.2189829 99.150002
-0.58344257 0.14570741 -1.2368034 18.838709 1.2057906 112.09677
-0.55464804 0.14553598 -1.2355258 19 1.1932743 124.5
-0.52447748 0.14603812 -1.2368764 19.322035 1.1833389 138.25424
-0.49518275 0.14559162 -1.2365103 19.647058 1.1726912 151.52942
-0.46544874 0.14611515 -1.2375932 19.633333 1.164 165.48334
-0.43442181 0.14570577 -1.2366219 20.465754 1.1535891 179.94521
-0.40489066 0.1456122 -1.2377397 19.506849 1.1463561 194.21918
-0.37617379 0.14541997 -1.2373288 17.68421 1.138566 208.07895
-0.34497333 0.1455512 -1.2373078 21.116882 1.1313119 223.4026
-0.31477597 0.14558141 -1.2378247 20.76923 1.12559 238.46153
-0.28480783 0.14523003 -1.2370299 21.738094 1.1193571 253.42857
-0.25504112 0.1456172 -1.2386442 22.101265 1.1163805 268.6329
-0.22495906 0.14525069 -1.2377443 23.44186 1.1115929 283.91861
-0.19497319 0.14525315 -1.2375659 24.84091 1.1083635 299.30682
-0.16543064 0.14492516 -1.2378684 26.126316 1.106411 314.55789
-0.13453341 0.14512034 -1.2387341 25.463917 1.1058145 330.56702
-0.1051637 0.14479354 -1.2380384 25.4375 1.1044683 345.78125
-0.07471066 0.1449485 -1.2380505 27.16 1.1047 361.57999
-0.045038749 0.1449254 -1.2389263 27.145834 1.1065623 376.92709
-0.014991222 0.14496137 -1.239102 28.686869 1.1085553 392.44446
0.014904121 0.14498208 -1.2385629 27.649485 1.1106395 407.84537
0.045212105 0.14489909 -1.2393121 26.87755 1.1148269 423.30612
0.074856594 0.14503573 -1.2388695 26.291666 1.1185728 438.39584
0.10502798 0.145025 -1.2394937 24.234043 1.1242123 453.54254
0.13404356 0.14479963 -1.2389758 20.547369 1.1292529 468.07367
0.16482106 0.14507471 -1.2403947 21.705263 1.1373578 483.10526
0.19516291 0.14459001 -1.2391925 23.23077 1.1435193 498.04807
0.22494425 0.14446297 -1.2386577 24.666666 1.1509607 512.45099
0.25559103 0.14409758 -1.2393082 25.296297 1.1604817 526.89813
0.28432602 0.1445165 -1.239833 27.298969 1.1700726 540.21649
0.31450233 0.14442091 -1.2398962 27.722773 1.1803069 554.05939
0.34499875 0.1448478 -1.2400666 27.625 1.1914792 567.77081
0.37537265 0.14433753 -1.2393829 26.043011 1.2023977 581.34412
0.40491158 0.14454891 -1.2401991 24.527473 1.215066 594
0.43391863 0.14455421 -1.2409852 19.55814 1.2280349 606.17444
0.45142624 0.14202 -1.240075 16 1.234625 613.75
-0.75292003 0.15355 -1.2551 0 1.3 47
-0.7329933 0.15514645 -1.2518613 13.612904 1.2874515 53.983871
-0.70485783 0.15425773 -1.2504547 15.393939 1.2724698 64.666664
-0.67481887 0.15520622 -1.2516924 15.316456 1.259595 76.962029
-0.64546531 0.15511256 -1.2524844 16.024391 1.2470976 89.109756
-0.61499906 0.1548564 -1.252648 18.216867 1.2341206 101.84338
-0.5842303 0.15452695 -1.251827 17.333334 1.2207437 114.78205
-0.55463904 0.15411131 -1.2511146 17.911764 1.2085295 127.5
-0.52591515 0.15421443 -1.2523353 18.753246 1.1990911 140.42857
-0.49463654 0.15438949 -1.252265 18.259741 1.1882212 154.5065
-0.46487841 0.15435567 -1.2520897 19.443037 1.1784304 168.11392
-0.4353171 0.15437269 -1.252167 20.538462 1.1696157 181.88461
-0.40533289 0.15422077 -1.2517086 21.450001 1.1608374 195.9875
-0.3762778 0.15394187 -1.2522016 22.173914 1.1538988 209.95653
-0.34438929 0.15418597 -1.2525622 22.658228 1.146975 225.4557
-0.31556195 0.15395345 -1.2520705 23.146667 1.1406 239.54666
-0.2852473 0.15395051 -1.2524675 23.584415 1.1355708 254.5974
-0.25475782 0.15421264 -1.2530494 22.886076 1.1315193 269.87341
-0.22453646 0.15372226 -1.2529423 23.718309 1.1275352 285.07043
-0.19501056 0.15394157 -1.2534044 24.87324 1.1250564 300.04227
-0.16488299 0.15419067 -1.2540337 25.844156 1.1234932 315.37662
-0.13489443 0.15407158 -1.254017 24.259741 1.1220518 330.66232
-0.10414486 0.15311 -1.2523715 22.857143 1.1196786 346.35715
-0.075081185 0.15375876 -1.2541745 22.666666 1.1217422 361.21213
-0.045275934 0.15350682 -1.2535577 26.727272 1.1220756 376.43939
-0.01462983 0.15367028 -1.2534907 27.446154 1.1238616 392.04614
0.01486334 0.1535738 -1.2534605 27.181818 1.1263636 407.01514
0.045201533 0.15347917 -1.2537709 25.387096 1.1300806 422.30646
0.075343125 0.15366198 -1.2532582 25.323076 1.1337849 437.44617
0.10546409 0.15305251 -1.2534097 21.192308 1.1388268 452.42307
0.13406502 0.15342797 -1.2546204 20.185184 1.1454813 466.38889
0.16466087 0.15365484 -1.2550133 20.233334 1.15245 481.25
0.1955211 0.15338908 -1.2536274 24 1.1584728 496.27274
0.22441903 0.15328883 -1.2544451 26.196079 1.1668823 509.90195
0.25550595 0.15320425 -1.2542326 28.076923 1.1756154 524.5
0.28577057 0.15342963 -1.2547725 29.215687 1.1855686 538.37256
0.31499586 0.15322229 -1.2543311 31.208334 1.1948959 551.70831
0.34482247 0.1533953 -1.2545265 31.020409 1.2056941 564.97961
0.375011 0.153365 -1.2550853 29.208334 1.2175835 578.10419
0.40465954 0.15323569 -1.2548728 25.59091 1.2291818 590.88635
0.43316808 0.15341666 -1.2552068 19.904762 1.2414049 602.83331
0.45137 0.15057001 -1.2575001 16 1.251 610
-0.18825667 0.36084333 -1.2591667 2 1.1713333 305.33334
0.31895 -0.69075 -1.2007999 24 1.311 535
0.35527998 -0.69049001 -1.2004 22 1.3225 550
0.43044999 -0.69046003 -1.2004 18 1.35 580
0.50357997 -0.69033998 -1.2000999 20 1.38 608
0.55550748 -0.6905275 -1.200475 18.5 1.4037499 627
0.59109747 -0.69046497 -1.200375 19 1.4205 639.75
0.60548002 -0.69059247 -1.2005999 18 1.42775 644.75
0.6452325 -0.69046497 -1.200375 19 1.4474999 658.5
0.67390996 -0.69051754 -1.2004249 17.5 1.4625 668.125
0.70638776 -0.69061613 -1.20055 13.666667 1.48 678.77777
0.7349149 -0.69067562 -1.2006124 13.5 1.4957498 687.9375
0.76273644 -0.69092929 -1.2008287 13.285714 1.5116428 696.64288
-0.96511585 -0.66283911 -1.2194333 11.166667 1.5185 1.3333334
-0.94345957 -0.66787583 -1.2110373 11.527897 1.5021589 7.0386267
-0.91581434 -0.66784996 -1.211223 12.02439 1.4868774 15.873983
-0.88393402 -0.66729414 -1.2120427 10.996168 1.4699463 26.340996
-0.85488302 -0.66838843 -1.2116325 12.041667 1.4547503 36.045139
-0.83228749 -0.66760439 -1.2105597 12.545455 1.4419612 43.42857
-0.78806627 -0.66305554 -1.2136426 14.15 1.4203498 58.875
-0.76416981 -0.66452515 -1.2058537 21.865385 1.4035001 66.192307
-0.73104101 -0.66815603 -1.2101156 15.302325 1.392957 79.251938
-0.70497501 -0.66868722 -1.2129074 13.897898 1.3837206 89.37838
-0.67522109 -0.66888982 -1.2130252 14.707182 1.3710941 100.58563
-0.64479548 -0.66884238 -1.2130932 15.446237 1.3585749 112.22581
-0.61468202 -0.66902333 -1.2127974 15.072 1.3465573 123.92267
-0.58479267 -0.66927791 -1.2125261 15.158442 1.3352442 135.74545
-0.55502486 -0.66935283 -1.2126889 14.842893 1.3248309 147.7581
-0.52510637 -0.66965473 -1.2124391 15.56391 1.3147141 159.98245
-0.49515516 -0.66967559 -1.2129596 15.627451 1.3057158 172.47794
-0.46531448 -0.66959697 -1.2129619 16.377359 1.2968942 185.02831
-0.43513763 -0.66974598 -1.2138425 16.586288 1.2894639 197.9929
-0.40508524 -0.67041045 -1.2133719 16.411764 1.2818215 210.94569
-0.37498379 -0.67062753 -1.2135295 17.002289 1.2751572 224.10298
-0.34494802 -0.67102951 -1.2133089 16.955751 1.2689518 237.34071
-0.31490794 -0.6710071 -1.2132813 17.030172 1.2633886 250.69827
-0.28505984 -0.67133754 -1.2131917 18.017317 1.2586672 264.08875
-0.25474876 -0.67153841 -1.2131588 18.226013 1.2545621 277.78464
-0.22508939 -0.67173225 -1.2137347 17.626835 1.251774 291.2872
-0.19510092 -0.67201293 -1.2130352 18.581196 1.2485861 304.953
-0.16538805 -0.67269301 -1.21268 19.496983 1.2466265 318.57144
-0.13485326 -0.67268968 -1.2135158 18.462151 1.2460568 332.60956
-0.10472757 -0.67294919 -1.2137133 18.179337 1.2458014 346.46393
-0.074359246 -0.67331213 -1.2133422 19.355732 1.245833 360.43082
-0.045527656 -0.6734271 -1.2135073 18.703476 1.2468874 373.67688
-0.015342405 -0.67371988 -1.2135377 19.777779 1.2486681 387.51266
0.01512988 -0.67443997 -1.2129159 19.357874 1.2508359 401.44785
0.04519638 -0.67465466 -1.2131373 17.776447 1.2541851 415.11777
0.074968316 -0.67478859 -1.2132751 18.718563 1.2580923 428.58084
0.10502344 -0.67474478 -1.2136296 20.300989 1.2628397 442.07129
0.13481182 -0.67520916 -1.2131579 21.722448 1.2677591 455.37552
0.16485053 -0.67531365 -1.2135223 21.532 1.2739564 468.62799
0.19520365 -0.67593241 -1.213264 21.117043 1.280616 481.91376
0.22522089 -0.67632228 -1.2135034 20.487499 1.2881815 494.87292
0.25473174 -0.67665827 -1.2134968 20.647182 1.2960242 507.48853
0.28452903 -0.67705065 -1.2131007 20.814049 1.3042805 520.10535
0.31511581 -0.67723227 -1.2131466 23.218815 1.3136771 532.84662
0.34488803 -0.67760199 -1.2128394 21.450819 1.3232358 545.1004
0.3747859 -0.67791069 -1.2131491 20.062761 1.3339121 557.14642
0.40508273 -0.67811644 -1.212683 20.181818 1.3446418 569.26862
0.43477151 -0.67789912 -1.2129391 20.645435 1.3561109 580.88745
0.46530908 -0.67804468 -1.213347 19.930737 1.3687682 592.57794
0.4947997 -0.67834103 -1.2130525 20.563192 1.3810422 603.75165
0.52491623 -0.67867708 -1.2126732 19.481642 1.3940631 614.96545
0.55475187 -0.67860579 -1.2127184 18.50655 1.4076298 625.83405
0.58514214 -0.67921156 -1.2127496 16.789356 1.422242 636.62531
0.61469704 -0.67910421 -1.212819 17.545244 1.4366584 646.96753
0.64549476 -0.67919654 -1.2131337 16.508474 1.4524335 657.46002
0.67460424 -0.67946965 -1.2124374 15.679198 1.467122 667.32581
0.70484066 -0.68043035 -1.2127208 13.488943 1.4838524 677.11053
0.73483366 -0.68018597 -1.2131859 14.195238 1.5005118 686.68811
0.7616455 -0.67969662 -1.214066 14.172757 1.5159675 695.01331
-0.96563393 -0.65770262 -1.2269268 12.8 1.5222001 2.0666666
-0.94301146 -0.65286326 -1.2211596 9.087719 1.503333 7.5438595
-0.91638666 -0.65568995 -1.2242732 11.073171 1.491927 16.878048
-0.88701093 -0.65479094 -1.2228227 9.2799997 1.4745598 26.053333
-0.85637736 -0.65703791 -1.2261101 13.333333 1.4617335 37.033333
-0.82791388 -0.6529386 -1.2198454 15.409091 1.4407274 45.159092
-0.78668582 -0.65535003 -1.2205107 16.214285 1.4217857 59.82143
-0.76219141 -0.65015221 -1.2134871 18.673077 1.4024423 66.875
-0.73776072 -0.64899349 -1.2205163 20.569893 1.3960596 76.7957
-0.70242137 -0.65874255 -1.2269433 13.565217 1.3893914 91.695656
-0.67669231 -0.65894997 -1.2282908 14.454545 1.3795455 101.54546
-0.65199375 -0.65884 -1.2288501 14.75 1.36975 111
-0.61829692 -0.65885574 -1.2279538 15.538462 1.3557308 123.88461
-0.58082473 -0.65872735 -1.2270932 13.733334 1.3409998 138.53334
-0.54808384 -0.65904766 -1.2281462 15.538462 1.3305385 151.84616
-0.51907003 -0.65967399 -1.2271401 16 1.3204 163.60001
-0.49724874 -0.65892255 -1.2275437 15.25 1.313625 172.625
-0.47541094 -0.65862542 -1.2284273 14 1.3077273 181.81818
-0.43928748 -0.65849251 -1.2276 17.5 1.2969999 197
-0.41398001 -0.65995002 -1.2285 14 1.2920001 208
-0.37243497 -0.65948999 -1.22885 16 1.2825 226
-0.34439 -0.65947002 -1.22825 16 1.27625 238.25
-0.32483 -0.65942001 -1.2299 16 1.274 247
-0.27469751 -0.65931499 -1.228525 17 1.26475 269.25
-0.25357002 -0.65909249 -1.2286999 20.5 1.2620001 278.75
-0.21761 -0.65979999 -1.2283 16 1.258 295
-0.92017871 -0.61746687 -1.2147313 6.25 1.47225 10.0625
-0.87860662 -0.61971337 -1.21435 7.3333335 1.4499999 23.833334
-0.845985 -0.61794168 -1.2216333 17 1.4375 36
-0.83123875 -0.61755502 -1.2114499 21 1.4220001 39.125
-0.78802592 -0.61063612 -1.2174364 19.873016 1.402064 54.73016
-0.76583213 -0.61893928 -1.2152988 23.223404 1.3928936 63.037235
-0.74762827 -0.62403119 -1.2267236 25.764706 1.3952353 72.058823
-0.903714 -0.59457004 -1.2158401 3.5999999 1.4553999 13.4
-0.89460099 -0.58457196 -1.21762 7.8000002 1.4481 15.8
-0.85307568 -0.58719718 -1.2222286 17.142857 1.4301428 30.857143
-0.7846781 -0.58984298 -1.2174351 20.054054 1.3924325 54.054054
-0.7776866 -0.58148587 -1.2242876 19.833334 1.3912083 57.083332
-0.87841338 -0.56414002 -1.2212334 8 1.4346666 20
-0.85442144 -0.55366933 -1.2137928 6.1428571 1.4123571 25.714285
-0.83880001 -0.54711002 -1.2012 20 1.392 28
-0.78131747 -0.55475378 -1.2156249 20.75 1.3763751 51.875
-0.77498883 -0.55396289 -1.2159555 18.285715 1.3732144 54.142857
-0.84622002 -0.52435505 -1.22165 9 1.404 27.5
-0.83449668 -0.52378339 -1.2158 7.3333335 1.393 30.333334
-0.78292674 -0.53648001 -1.2240667 12 1.3773333 51.333332
-0.77173793 -0.5236361 -1.2214001 19.128204 1.3652694 53.833332
-0.82365 -0.49377599 -1.2146599 14.8 1.3766 31.4
-0.76846129 -0.49531183 -1.2246215 21.59091 1.3567612 53.386364
-0.79608405 -0.45819798 -1.2068199 2.4000001 1.3448001 36.799999
-0.76251489 -0.46594235 -1.2255658 23.829786 1.3452551 53.510639
-0.78528631 -0.44140375 -1.2118125 10 1.33825 40.5
-0.76599032 -0.43162358 -1.2164166 15.129412 1.3293291 47.835293
-0.7584058 -0.40885055 -1.2234999 16.02985 1.3248807 50.537312
-0.74918246 -0.39544249 -1.221825 13.5 1.3152499 52.75
-0.75135201 -0.3799673 -1.2247932 17.466667 1.3147334 51.533333
-0.74657524 -0.37239766 -1.2204143 17.714285 1.3068094 51.952381
-0.74162865 -0.34581158 -1.2178421 12.789474 1.2956843 51.657894
-0.7338677 -0.31465048 -1.2167162 15.704918 1.2838031 52.606556
-0.70338011 -0.30815721 -1.2248642 30.362068 1.2744832 65.913795
-0.68296939 -0.30697221 -1.2263713 32.474575 1.2659321 74.288139
-0.7292462 -0.28577957 -1.2176975 17.891891 1.2763379 53.081081
-0.70318556 -0.28475916 -1.2125081 30.895653 1.2590182 62.195652
-0.68190765 -0.28375077 -1.2172303 28.169491 1.2527628 71.677963
-0.726695 -0.26189786 -1.2105857 13.285714 1.2644999 51.357143
-0.70357299 -0.2651225 -1.2025913 27.82353 1.2469115 58.941177
-0.67954499 -0.25562349 -1.2129911 30.617647 1.2426223 70.436272
-0.67768198 -0.22552209 -1.2108035 25.975155 1.2346704 69.459625
-0.75422502 -0.19696501 -1.22 18 1.276 40
-0.74818999 -0.18862 -1.2025 0 1.257 38
-0.67716891 -0.19983998 -1.2036054 25.551723 1.2242414 67.137932
0.41227752 -0.18409251 -1.2279547 36.5 1.2118251 598.52502
0.43008846 -0.18228038 -1.2282151 34.076923 1.2194232 606.11536
-0.76208502 -0.16872334 -1.2121 10.333333 1.2698332 34.166668
-0.69216996 -0.16965334 -1.2218666 12 1.2433333 64
-0.68011999 -0.1777 -1.2029001 24 1.222 65
0.40969983 -0.16360833 -1.2191017 32.839024 1.2002051 599.74634
0.43082216 -0.16461691 -1.2190562 32.817734 1.2093593 608.79309
-0.69897002 -0.13294999 -1.2074 34 1.23 57
0.40650013 -0.13678163 -1.212081 28.912281 1.1895652 600.44299
0.43342939 -0.13961065 -1.2063527 31.904762 1.1963882 613.19727
0.46237999 -0.12172 -1.2293 2 1.228 621
-0.77753496 -0.11413 -1.20895 19 1.27 26
-0.71075499 -0.11014 -1.2174001 30 1.2425001 54
0.40360844 -0.10587723 -1.21346 21.379311 1.1867864 599.52411
0.44734001 -0.11525 -1.2004 22 1.1950001 621
0.45471001 -0.10855 -1.2084501 5 1.2049999 622.5
-0.79408002 -0.078031003 -1.2047 4 1.273 18
-0.71012402 -0.074892201 -1.2198399 11.6 1.2419999 54.200001
0.40386343 -0.077781655 -1.2081724 21.014492 1.1801887 601.1449
0.46644697 -0.075082295 -1.2152801 22.4 1.2142003 626.5
-0.79862499 -0.048434999 -1.2051001 10 1.2745 16
-0.70818001 -0.054000001 -1.2036999 0 1.226 51
0.40779006 -0.049943931 -1.20804 16.799999 1.1804 603.20001
0.42129999 -0.030322 -1.2284 6 1.204 605
0.46963 -0.059080999 -1.2108999 28 1.211 629
-0.15587999 -0.017925998 -1.2173334 2.6666667 1.077 318.66666
0.41326001 -0.022502 -1.2069 4 1.181 606
0.48412666 -0.0093640834 -1.2108999 14.666667 1.2166667 635.33331
0.48774001 0.023215 -1.2012 6 1.21 639
-0.83253998 0.055729002 -1.2029999 0 1.2920001 3
0.50432003 0.043760002 -1.2085 0 1.225 644
0.54158002 0.059448998 -1.2291 2 1.262 654
-0.77271003 0.10489 -1.2022001 2 1.261 26
0.45475 0.11829 -1.2007999 14 1.199 624
-0.75175834 0.128195 -1.2121834 2.6666667 1.2603334 37
-0.7327559 0.13401291 -1.2153606 15.416667 1.2538334 45.333332
-0.70573944 0.13427736 -1.2153184 18.072464 1.2403402 56.086956
-0.67547083 0.13331321 -1.2141844 18.875 1.224687 68.145836
-0.64550686 0.13319141 -1.2143772 18.626667 1.2109733 80.68
-0.61516178 0.13341899 -1.214844 19.774834 1.1979798 93.728477
-0.58527094 0.1333662 -1.2145246 20.671329 1.1850629 106.69231
-0.55458623 0.13313472 -1.2142094 20.966442 1.1724364 120.28859
-0.52535605 0.13334131 -1.2145178 21.078789 1.1616484 133.62424
-0.49462885 0.13275355 -1.2142613 21.469879 1.1503733 147.79518
-0.46413627 0.13358323 -1.2153995 21.927711 1.1413494 162.37349
-0.43500319 0.13253202 -1.2142342 22.31214 1.131098 176.13873
-0.40512657 0.13281378 -1.2148306 21.702381 1.1231368 190.77975
-0.37478262 0.1324483 -1.2143369 22.323353 1.1146766 205.70659
-0.34482324 0.13265897 -1.214623 23.426966 1.1078932 220.75842
-0.31487945 0.13250996 -1.2148664 23.910614 1.1017988 235.96089
-0.28463468 0.13212019 -1.2140713 24.205715 1.0954001 251.38286
